0.630 122.130 59.000
11.280 122.010 56.100
11.820 121.930 55.700
1.440 122.000 59.200
9.600 120.520 55.900
13.730 120.410 53.800
3.720 120.480 56.800
7.290 119.030 56.600
16.100 118.880 54.500
7.160 118.940 56.500
3.820 117.570 56.400
13.980 117.450 55.000
10.780 117.420 55.400
0.070 117.490 56.900
10.500 116.010 54.900
14.070 115.910 54.500
4.140 115.980 55.400
16.490 114.430 53.800
8.050 114.430 54.600
3.130 113.090 55.600
13.680 112.980 51.900
1.570 112.990 56.100
9.810 111.520 56.500
15.790 111.390 52.800
6.110 111.450 55.000
4.810 110.070 56.600
14.990 109.960 54.800
11.980 109.920 55.400
1.240 109.990 57.000
9.510 108.530 56.400
17.190 108.400 53.700
7.950 108.450 56.700
3.270 107.100 56.900
13.820 106.980 56.200
13.690 106.910 56.300
3.220 106.980 56.300
8.020 105.510 54.700
17.530 105.410 54.400
9.860 105.400 56.300
1.100 104.060 57.900
12.050 103.940 56.500
16.170 103.840 54.700
6.290 103.900 55.900
4.780 102.510 56.000
15.270 102.390 55.100
13.620 102.340 55.700
3.030 102.400 57.400
7.900 100.940 56.300
17.720 100.840 54.000
11.830 100.820 56.500
0.970 100.890 57.700
10.390 99.410 56.800
19.000 99.260 54.100
9.910 99.320 56.700
1.250 97.960 57.700
12.410 97.850 55.700
17.780 97.730 53.900
7.970 97.790 56.600
3.300 96.400 57.000
14.200 96.290 55.400
16.590 96.190 53.600
6.400 96.250 56.300
4.800 94.830 56.300
15.600 94.720 53.800
15.960 94.640 53.900
5.530 94.700 57.100
5.760 93.280 55.800
16.390 93.160 53.900
16.080 93.090 53.900
5.620 93.150 55.300
5.490 91.710 56.000
16.250 91.600 52.500
16.770 91.520 52.800
6.300 91.580 56.200
4.720 90.140 54.300
15.530 90.030 54.000
17.290 89.940 54.100
7.060 90.000 55.200
4.560 88.550 54.100
15.450 88.430 53.900
17.900 88.340 52.800
7.770 88.390 53.000
3.630 86.950 56.200
14.650 86.840 53.500
19.030 86.720 49.600
8.900 86.780 54.300
2.200 85.360 56.000
13.470 85.250 53.500
20.270 85.110 50.600
10.620 85.170 55.200
0.320 83.760 56.200
11.610 83.640 54.200
21.100 83.540 51.000
13.460 83.520 52.900
2.430 83.580 56.000
8.500 82.040 55.400
18.900 81.930 53.300
16.610 81.870 53.800
5.880 81.930 55.300
5.410 80.420 56.200
16.370 80.310 53.500
18.970 80.200 53.300
8.750 80.260 55.500
2.360 78.780 55.100
13.450 78.670 54.200
21.550 78.530 51.100
12.150 78.570 54.800
1.000 78.640 54.300
10.380 77.040 55.300
20.530 76.930 52.400
15.330 76.890 52.700
4.370 76.950 54.900
7.320 75.390 55.500
17.990 75.280 54.800
18.820 75.190 53.800
8.370 75.240 55.900
3.050 73.770 55.600
14.210 73.660 53.400
22.150 73.520 52.500
12.900 73.570 54.100
1.650 73.630 56.600
10.070 72.000 55.500
20.350 71.900 52.900
17.080 71.840 52.900
6.280 71.900 54.300
4.780 70.390 56.100
15.890 70.280 53.800
21.230 70.150 53.300
11.320 70.200 54.900
0.120 70.250 57.200
11.120 68.620 55.300
21.260 68.520 52.700
16.210 68.470 53.600
5.260 68.520 55.100
5.780 66.990 55.700
